   574483.40   163328.67      677.00
   574483.94   163326.45      677.00
   574484.44   163324.30      677.00
   574484.78   163322.13      677.00
   574484.94   163319.95      677.00
   574484.90   163317.59      677.00
   574484.89   163315.20      677.00
   574484.99   163312.84      677.00
   574484.93   163310.38      677.00
   574484.79   163308.02      677.00
   574484.62   163305.64      677.00
   574484.37   163303.15      677.00
   574484.45   163300.70      676.99
   574484.53   163298.49      676.99
   574484.41   163296.16      676.99
   574484.30   163293.59      676.99
   574484.14   163291.07      676.99
   574484.22   163288.61      676.99
   574484.54   163286.38      676.99
   574484.89   163284.32      676.99
   574485.21   163281.92      676.99
   574485.25   163280.82      676.99
   574485.83   163280.62      676.99
   574488.09   163280.03      676.99
   574490.29   163279.52      676.99
   574492.80   163279.36      676.99
   574495.40   163279.17      676.99
   574497.38   163278.90      676.99
   574499.39   163278.51      676.99
   574501.70   163277.48      676.99
   574503.48   163276.46      676.99
   574505.25   163274.59      676.99
   574506.80   163272.50      676.99
   574507.73   163270.08      676.99
   574507.85   163267.64      676.99
   574507.26   163265.05      676.99
   574506.20   163262.69      676.99
   574505.14   163260.31      676.98
   574504.15   163258.53      676.98
   574503.03   163256.82      676.98
   574501.41   163254.89      676.98
   574499.97   163253.04      676.98
   574498.40   163251.35      676.98
   574496.47   163250.04      676.98
   574494.73   163248.64      676.98
   574493.33   163246.80      676.98
   574492.37   163244.64      676.98
   574491.52   163242.73      676.98
   574490.51   163240.71      676.98
   574489.42   163238.86      676.98
   574488.20   163236.92      676.98
   574487.15   163234.90      676.98
   574486.55   163233.24      676.98
   574486.59   163232.63      676.98
   574486.84   163231.45      676.98
   574487.54   163230.42      676.98
   574489.14   163228.74      676.98
   574489.58   163228.41      676.98
   574490.16   163228.14      676.98
   574492.16   163227.51      676.98
   574494.68   163227.64      676.98
   574497.05   163227.93      676.98
   574499.30   163228.28      676.98
   574501.42   163228.64      676.98
   574503.72   163228.80      676.98
   574504.10   163228.79      676.98
   574501.31   163186.87      679.00
   574500.14   163188.93      679.01
   574498.53   163190.78      679.01
   574496.84   163192.59      679.01
   574495.54   163194.17      679.01
   574494.26   163196.42      679.01
   574493.25   163198.23      679.01
   574492.52   163200.36      679.01
   574492.53   163201.01      679.01
   574492.68   163201.56      679.01
   574493.07   163203.07      679.01
   574493.25   163204.16      679.01
   574493.72   163204.57      679.01
   574494.34   163204.80      679.01
   574496.58   163205.11      679.01
   574498.77   163205.28      679.01
   574501.07   163205.74      679.01
   574503.30   163206.26      679.01
   574505.21   163207.04      679.01
   574505.62   163207.35      679.01
   574506.18   163207.52      679.01
   574506.85   163207.54      679.01
   574507.35   163207.43      679.01
   574509.55   163206.81      679.01
   574510.00   163206.40      679.01
   574511.27   163204.51      679.01
   574512.64   163202.49      679.01
   574513.80   163200.67      679.01
   574514.94   163198.73      679.01
   574515.49   163197.89      679.01
   574510.65   163400.30      678.03
   574511.67   163398.04      678.03
   574512.77   163395.73      678.02
   574513.51   163393.39      678.02
   574513.53   163390.94      678.02
   574513.23   163388.86      678.02
   574512.67   163386.72      678.02
   574512.20   163384.25      678.02
   574511.91   163381.69      678.02
   574511.54   163379.37      678.02
   574511.20   163378.91      678.02
   574510.68   163378.51      678.02
   574508.64   163377.31      678.02
   574508.29   163376.86      678.02
   574508.15   163376.33      678.02
   574508.16   163375.68      678.02
   574508.34   163374.97      678.02
   574509.17   163372.96      678.02
   574510.28   163370.78      678.02
   574511.24   163368.61      678.02
   574511.90   163366.32      678.02
   574512.44   163364.32      678.02
   574512.84   163361.99      678.02
   574513.10   163359.94      678.02
   574513.73   163357.83      678.02
   574514.87   163355.75      678.01
   574515.94   163353.93      678.01
   574517.21   163352.20      678.01
   574518.68   163350.55      678.01
   574520.05   163349.33      678.01
   574527.67   163332.80      679.02
   574525.22   163333.19      679.02
   574523.13   163333.34      679.02
   574520.97   163333.70      679.02
   574519.84   163334.15      679.02
   574519.22   163334.09      679.02
   574518.70   163333.86      679.02
   574518.22   163333.51      679.02
   574517.18   163332.96      679.02
   574514.78   163331.77      679.02
   574514.19   163331.64      679.02
   574513.60   163331.62      679.02
   574511.86   163331.45      679.02
   574511.34   163331.08      679.02
   574510.95   163330.54      679.02
   574510.65   163329.93      679.02
   574510.04   163327.82      679.02
   574509.34   163325.77      679.02
   574508.53   163323.74      679.02
   574507.74   163321.41      679.02
   574507.09   163319.30      679.02
   574506.41   163317.00      679.02
   574505.56   163314.83      679.02
   574504.54   163312.70      679.02
   574503.50   163310.62      679.02
   574502.56   163308.53      679.02
   574502.31   163306.38      679.02
   574502.81   163304.64      679.02
   574503.86   163302.66      679.02
   574505.22   163300.80      679.01
   574506.82   163299.07      679.01
   574508.64   163297.71      679.01
   574510.61   163296.68      679.01
   574512.74   163295.72      679.01
   574514.92   163294.72      679.01
   574516.99   163293.41      679.01
   574518.80   163291.86      679.01
   574519.60   163291.17      679.01
   574521.03   163289.21      679.01
   574522.36   163287.35      679.01
   574523.73   163285.09      679.01
   574524.87   163282.97      679.01
   574525.18   163280.68      679.01
   574525.09   163278.51      679.01
   574524.58   163276.20      679.01
   574523.67   163273.88      679.01
   574522.95   163271.46      679.01
   574522.25   163268.99      679.01
   574521.81   163266.66      679.01
   574521.25   163264.21      679.01
   574520.54   163261.87      679.00
   574519.75   163259.54      679.00
   574519.01   163257.01      679.00
   574518.37   163254.60      679.00
   574517.88   163252.19      679.00
   574517.54   163251.17      679.00
   574516.82   163249.03      679.00
   574516.04   163246.69      679.00
   574515.24   163244.28      679.00
   574514.12   163241.97      679.00
   574512.79   163240.06      679.00
   574512.60   163239.36      679.00
   574512.62   163238.65      679.00
   574512.78   163237.95      679.00
   574513.83   163235.69      679.00
   574514.58   163233.49      679.00
   574515.42   163231.41      679.00
   574516.56   163229.41      679.00
   574517.98   163227.47      679.00
   574519.13   163225.48      679.00
   574520.24   163223.33      679.00
   574521.11   163221.23      679.00
   574521.78   163219.08      678.99
   574522.15   163216.85      678.99
   574522.71   163214.68      678.99
   574523.51   163212.56      678.99
   574524.17   163210.52      678.99
   574524.74   163208.17      678.99
   574525.13   163206.21      678.99
   574520.03   163396.94      679.04
   574521.03   163394.46      679.04
   574521.63   163392.50      679.04
   574521.81   163390.10      679.04
   574521.73   163387.76      679.04
   574521.61   163385.42      679.04
   574521.18   163382.90      679.04
   574520.66   163380.59      679.03
   574520.38   163378.25      679.03
   574519.70   163376.28      679.03
   574518.92   163374.32      679.03
   574517.96   163372.38      679.03
   574517.41   163371.13      679.03
   574517.50   163369.21      679.03
   574517.69   163368.05      679.03
   574517.54   163367.48      679.03
   574517.38   163366.23      679.03
   574517.46   163364.05      679.03
   574517.79   163361.63      679.03
   574518.35   163359.35      679.03
   574519.46   163357.25      679.03
   574520.72   163355.39      679.03
   574521.66   163353.48      679.03
   574522.89   163351.60      679.03
   574524.42   163349.97      679.03
   574526.34   163348.31      679.03
   574526.65   163347.98      679.03
   574527.33   163394.86      680.01
   574528.10   163392.56      680.01
   574528.71   163390.48      680.01
   574529.07   163388.24      680.01
   574529.23   163386.15      680.01
   574529.18   163383.92      680.01
   574528.85   163381.82      680.01
   574528.39   163379.59      680.01
   574527.63   163377.42      680.01
   574526.90   163375.22      680.01
   574526.15   163373.09      680.01
   574525.33   163371.02      680.00
   574524.70   163369.07      680.00
   574524.54   163366.67      680.00
   574525.27   163364.69      680.00
   574525.63   163363.50      680.00
   574525.60   163362.98      680.00
   574525.41   163362.41      680.00
   574525.05   163361.32      680.00
   574525.12   163360.61      680.00
   574525.37   163359.89      680.00
   574526.31   163357.93      680.00
   574527.03   163355.95      680.00
   574528.22   163354.19      680.00
   574529.66   163353.07      680.00
   574531.54   163351.71      680.00
   574533.33   163350.52      680.00
   574533.65   163350.12      680.00
   574533.89   163349.68      680.00
   574534.64   163347.65      680.00
   574535.57   163345.22      680.00
   574536.81   163343.64      680.00
   574538.73   163342.38      680.00
   574540.71   163341.14      680.00
   574542.68   163339.86      680.00
   574544.66   163338.73      680.00
   574546.49   163337.62      680.00
   574548.38   163336.18      680.00
   574550.06   163335.09      679.99
   574552.13   163333.65      679.99
   574553.77   163332.17      679.99
   574555.64   163330.55      679.99
   574555.93   163330.12      679.99
   574555.73   163329.62      679.99
   574555.22   163329.59      679.99
   574552.85   163329.66      679.99
   574550.55   163329.79      679.99
   574548.02   163329.94      679.99
   574545.52   163329.78      679.99
   574542.96   163329.71      679.99
   574540.81   163329.58      679.99
   574538.38   163329.37      679.99
   574536.14   163329.24      679.99
   574534.09   163329.10      679.99
   574531.70   163329.16      679.99
   574529.65   163329.40      679.99
   574527.30   163329.69      679.99
   574525.15   163329.86      679.99
   574522.86   163329.86      679.99
   574520.78   163329.52      679.99
   574520.34   163329.17      679.99
   574519.18   163327.30      679.99
   574518.72   163325.60      679.99
   574518.85   163323.98      679.99
   574519.48   163321.86      679.99
   574519.51   163319.22      679.99
   574519.41   163316.83      679.99
   574519.16   163314.59      679.99
   574519.14   163312.31      679.99
   574519.69   163309.94      679.99
   574520.32   163307.46      679.99
   574520.96   163305.23      679.99
   574521.61   163303.02      679.99
   574522.66   163300.83      679.99
   574524.58   163299.21      679.99
   574526.65   163297.72      679.99
   574528.78   163296.43      679.99
   574530.54   163294.84      679.99
   574531.93   163292.96      679.98
   574533.02   163290.79      679.98
   574533.60   163288.49      679.98
   574533.69   163286.03      679.98
   574533.45   163283.41      679.98
   574533.19   163280.97      679.98
   574532.42   163278.54      679.98
   574531.63   163276.64      679.98
   574530.90   163274.12      679.98
   574530.49   163272.08      679.98
   574529.65   163269.55      679.98
   574528.98   163267.61      679.98
   574528.47   163265.22      679.98
   574528.11   163263.06      679.98
   574527.77   163260.70      679.98
   574527.29   163258.70      679.98
   574526.81   163256.60      679.98
   574526.13   163254.09      679.98
   574525.49   163252.14      679.97
   574524.74   163250.27      679.97
   574523.94   163248.36      679.97
   574523.14   163245.98      679.97
   574522.53   163243.43      679.97
   574521.99   163241.19      679.97
   574520.95   163239.01      679.97
   574519.57   163236.86      679.97
   574518.58   163234.58      679.97
   574518.47   163233.93      679.97
   574518.50   163233.24      679.97
   574518.76   163231.06      679.97
   574519.38   163228.82      679.97
   574520.18   163226.86      679.97
   574521.02   163224.92      679.97
   574522.00   163222.81      679.97
   574523.00   163220.65      679.97
   574523.93   163218.46      679.97
   574524.40   163216.26      679.97
   574525.20   163214.18      679.97
   574525.99   163212.27      679.97
   574526.84   163210.32      679.96
   574527.92   163208.28      679.96
   574528.89   163206.50      679.96
   574572.11   163321.04      682.00
   574569.92   163321.99      682.00
   574567.76   163322.96      682.00
   574565.56   163323.98      682.00
   574563.31   163324.80      682.00
   574561.21   163325.37      682.00
   574558.71   163325.90      682.00
   574556.62   163326.29      682.00
   574554.33   163326.51      682.00
   574551.84   163326.17      682.00
   574549.86   163324.71      682.00
   574549.03   163323.35      682.00
   574548.60   163323.01      682.00
   574546.34   163321.98      682.00
   574545.84   163321.54      682.00
   574544.30   163319.49      682.00
   574543.58   163317.56      682.00
   574542.99   163315.21      682.00
   574542.85   163312.81      682.00
   574542.90   163310.81      682.00
   574542.96   163308.62      682.00
   574543.18   163306.54      682.00
   574543.56   163304.42      682.00
   574544.03   163301.99      681.99
   574544.50   163299.55      681.99
   574544.63   163296.95      681.99
   574544.38   163294.27      681.99
   574544.10   163292.25      681.99
   574543.88   163290.04      681.99
   574543.61   163287.90      681.99
   574543.16   163285.66      681.99
   574542.60   163283.62      681.99
   574542.11   163281.48      681.99
   574541.75   163279.31      681.99
   574541.48   163277.07      681.99
   574541.26   163274.92      681.99
   574541.01   163272.88      681.99
   574540.67   163270.73      681.99
   574540.25   163268.68      681.99
   574539.81   163266.56      681.99
   574539.47   163264.50      681.99
   574539.08   163262.33      681.99
   574538.69   163260.32      681.98
   574538.34   163258.21      681.98
   574538.08   163256.15      681.98
   574537.96   163254.04      681.98
   574537.76   163252.04      681.98
   574537.35   163249.94      681.98
   574536.98   163247.90      681.98
   574536.57   163245.80      681.98
   574536.02   163243.82      681.98
   574535.32   163241.68      681.98
   574534.49   163239.64      681.98
   574533.76   163237.55      681.98
   574533.14   163235.58      681.98
   574532.45   163233.68      681.98
   574531.44   163231.26      681.98
   574530.60   163228.79      681.98
   574529.71   163226.30      681.98
   574528.78   163223.98      681.98
   574528.11   163221.63      681.98
   574527.97   163219.47      681.97
   574528.09   163217.30      681.97
   574528.75   163215.09      681.97
   574529.85   163212.72      681.97
   574530.87   163210.30      681.97
   574532.04   163208.12      681.97
   574533.53   163206.16      681.97
   574533.85   163205.83      681.97
   574574.01   163319.26      683.01
   574571.72   163319.89      683.01
   574569.36   163320.60      683.01
   574568.79   163320.61      683.01
   574568.16   163320.49      683.01
   574565.76   163320.29      683.01
   574563.48   163320.48      683.01
   574561.03   163320.56      683.01
   574558.53   163320.55      683.01
   574557.96   163320.32      683.01
   574557.55   163320.00      683.01
   574557.22   163319.48      683.01
   574555.63   163317.48      683.01
   574553.90   163316.40      683.01
   574552.32   163315.56      683.01
   574551.94   163315.08      683.01
   574551.65   163314.47      683.01
   574551.08   163312.51      683.01
   574550.58   163310.50      683.01
   574550.31   163308.45      683.01
   574550.33   163306.22      683.01
   574550.61   163304.02      683.01
   574550.64   163301.63      683.01
   574550.56   163299.22      683.01
   574550.66   163296.87      683.01
   574550.75   163294.45      683.01
   574550.45   163292.09      683.00
   574549.73   163289.65      683.00
   574548.95   163287.21      683.00
   574548.39   163285.24      683.00
   574547.70   163283.22      683.00
   574547.04   163281.09      683.00
   574546.55   163279.00      683.00
   574546.14   163276.90      683.00
   574545.63   163274.78      683.00
   574545.14   163272.61      683.00
   574544.77   163270.32      683.00
   574544.31   163268.15      683.00
   574543.80   163265.77      683.00
   574543.28   163263.53      683.00
   574542.89   163261.33      683.00
   574542.43   163258.80      683.00
   574541.83   163256.54      683.00
   574541.20   163254.19      683.00
   574540.68   163251.97      682.99
   574540.33   163249.67      682.99
   574539.94   163247.45      682.99
   574539.44   163245.17      682.99
   574538.72   163242.94      682.99
   574537.97   163240.82      682.99
   574537.25   163238.71      682.99
   574536.60   163236.63      682.99
   574536.03   163234.41      682.99
   574535.47   163232.41      682.99
   574534.97   163230.29      682.99
   574534.56   163228.21      682.99
   574534.25   163226.13      682.99
   574534.03   163223.51      682.99
   574534.13   163221.45      682.99
   574534.37   163219.44      682.99
   574534.55   163216.95      682.99
   574534.84   163214.38      682.99
   574535.25   163211.84      682.99
   574535.87   163209.31      682.98
   574536.76   163206.87      682.98
   574537.80   163204.74      682.98
   574537.89   163204.63      682.98
   574575.01   163315.78      684.02
   574572.59   163315.95      684.02
   574570.39   163316.13      684.02
   574568.36   163316.50      684.02
   574565.76   163316.57      684.02
   574563.31   163316.19      684.02
   574562.82   163315.86      684.02
   574561.27   163314.02      684.02
   574561.11   163313.40      684.02
   574561.10   163312.74      684.02
   574561.03   163310.47      684.02
   574560.95   163308.31      684.02
   574560.59   163306.07      684.02
   574560.40   163303.86      684.02
   574560.03   163301.28      684.02
   574559.33   163298.79      684.02
   574558.13   163296.51      684.02
   574556.90   163294.12      684.02
   574555.92   163292.23      684.02
   574555.07   163290.23      684.02
   574554.27   163288.32      684.02
   574553.46   163286.39      684.02
   574552.60   163284.54      684.02
   574551.74   163282.58      684.02
   574550.80   163280.60      684.02
   574550.04   163278.53      684.02
   574549.31   163276.58      684.01
   574548.46   163274.52      684.01
   574547.59   163272.48      684.01
   574546.73   163270.22      684.01
   574546.03   163268.06      684.01
   574545.48   163265.79      684.01
   574544.98   163263.60      684.01
   574544.59   163261.40      684.01
   574544.19   163259.12      684.01
   574543.80   163256.75      684.01
   574543.36   163254.28      684.01
   574542.91   163251.89      684.01
   574542.40   163249.45      684.01
   574541.86   163247.06      684.01
   574541.30   163244.63      684.01
   574540.81   163242.08      684.01
   574540.22   163239.86      684.01
   574539.60   163237.60      684.01
   574538.91   163235.44      684.00
   574538.19   163233.28      684.00
   574537.59   163231.18      684.00
   574537.06   163229.19      684.00
   574536.60   163226.66      684.00
   574536.34   163224.22      684.00
   574536.77   163221.88      684.00
   574537.13   163221.45      684.00
   574536.90   163220.96      684.00
   574536.67   163219.96      684.00
   574537.39   163217.37      684.00
   574538.06   163215.17      684.00
   574538.85   163212.67      684.00
   574539.87   163210.20      684.00
   574541.27   163208.11      684.00
   574542.71   163206.15      684.00
   574542.83   163206.03      684.00
   574577.34   163312.12      685.02
   574575.11   163311.38      685.02
   574573.98   163311.33      685.02
   574571.74   163312.06      685.02
   574570.09   163312.62      685.02
   574569.46   163312.50      685.02
   574568.88   163312.19      685.02
   574568.48   163311.81      685.02
   574567.48   163309.91      685.02
   574567.45   163309.36      685.02
   574567.41   163307.31      685.02
   574567.12   163304.98      685.02
   574566.52   163302.75      685.02
   574565.51   163300.60      685.01
   574564.25   163298.33      685.01
   574562.93   163296.06      685.01
   574562.00   163294.24      685.01
   574560.78   163291.84      685.01
   574559.89   163289.85      685.01
   574558.99   163287.96      685.01
   574557.94   163286.06      685.01
   574556.85   163284.27      685.01
   574555.59   163282.48      685.01
   574554.29   163280.68      685.01
   574553.06   163278.87      685.01
   574552.02   163277.03      685.01
   574551.08   163275.17      685.01
   574550.12   163273.24      685.01
   574549.16   163271.24      685.01
   574548.47   163269.24      685.01
   574547.80   163267.15      685.01
   574547.19   163265.05      685.01
   574546.64   163262.86      685.01
   574546.12   163260.79      685.00
   574545.60   163258.65      685.00
   574545.01   163256.53      685.00
   574544.60   163254.22      685.00
   574544.21   163252.00      685.00
   574543.76   163249.64      685.00
   574543.21   163247.39      685.00
   574542.66   163245.08      685.00
   574542.14   163242.80      685.00
   574541.66   163240.56      685.00
   574541.27   163238.31      685.00
   574540.82   163236.21      685.00
   574540.45   163233.98      685.00
   574540.07   163231.89      685.00
   574539.70   163229.68      685.00
   574539.36   163227.60      685.00
   574539.03   163225.51      685.00
   574538.79   163222.89      685.00
   574539.16   163220.47      685.00
   574540.00   163218.03      684.99
   574540.89   163216.14      684.99
   574541.72   163214.17      684.99
   574542.65   163212.33      684.99
   574543.73   163210.55      684.99
   574545.00   163208.86      684.99
   574546.22   163207.21      684.99
   574546.71   163206.63      684.99
   574565.61   163288.09      687.00
   574564.58   163286.02      687.00
   574563.10   163284.10      687.00
   574561.87   163282.47      687.00
   574560.57   163280.88      687.00
   574559.11   163279.23      687.00
   574557.80   163277.31      687.00
   574556.65   163275.59      686.99
   574555.21   163273.56      686.99
   574554.89   163272.84      686.99
   574553.90   163270.82      686.99
   574552.87   163268.93      686.99
   574551.87   163266.89      686.99
   574551.03   163264.65      686.99
   574550.12   163262.38      686.99
   574549.32   163260.08      686.99
   574548.55   163257.66      686.99
   574547.83   163255.33      686.99
   574547.30   163252.87      686.99
   574547.01   163250.42      686.99
   574546.60   163248.03      686.99
   574546.00   163245.47      686.99
   574545.59   163242.97      686.99
   574545.10   163240.54      686.99
   574544.43   163238.19      686.99
   574543.82   163235.93      686.99
   574543.29   163233.53      686.98
   574543.05   163231.26      686.98
   574542.95   163229.00      686.98
   574542.77   163226.76      686.98
   574542.91   163224.71      686.98
   574543.36   163222.59      686.98
   574544.12   163220.50      686.98
   574545.11   163218.45      686.98
   574546.13   163216.66      686.98
   574547.37   163214.89      686.98
   574548.59   163213.23      686.98
   574549.89   163211.53      686.98
   574551.26   163210.00      686.98
   574552.70   163208.43      686.98
   574554.11   163206.87      686.98
   574555.59   163205.42      686.98
   574564.85   163282.79      688.01
   574563.42   163280.94      688.01
   574561.95   163278.83      688.01
   574560.75   163277.22      688.01
   574559.36   163275.62      688.00
   574557.82   163273.90      688.00
   574556.40   163272.27      688.00
   574555.05   163270.42      688.00
   574553.95   163268.47      688.00
   574553.04   163266.45      688.00
   574552.19   163264.45      688.00
   574551.43   163262.35      688.00
   574550.70   163260.31      688.00
   574550.06   163258.21      688.00
   574549.47   163256.19      688.00
   574549.05   163254.13      688.00
   574548.56   163251.55      688.00
   574548.25   163249.48      688.00
   574547.88   163247.40      688.00
   574547.47   163245.25      688.00
   574547.00   163243.19      688.00
   574546.54   163241.10      688.00
   574545.99   163239.04      688.00
   574545.42   163236.98      688.00
   574544.86   163234.85      688.00
   574544.50   163232.83      687.99
   574544.29   163230.81      687.99
   574544.37   163228.20      687.99
   574544.57   163226.21      687.99
   574545.02   163223.70      687.99
   574545.67   163221.78      687.99
   574546.84   163219.53      687.99
   574547.95   163217.84      687.99
   574549.27   163216.28      687.99
   574550.52   163214.63      687.99
   574552.19   163212.55      687.99
   574553.53   163210.99      687.99
   574555.14   163209.21      687.99
   574556.68   163207.21      687.99
   574557.81   163205.84      687.99
   574564.82   163278.98      689.02
   574562.96   163277.20      689.02
   574561.52   163275.80      689.01
   574559.88   163273.78      689.01
   574558.12   163271.92      689.01
   574556.98   163270.14      689.01
   574555.52   163267.91      689.01
   574554.52   163266.00      689.01
   574553.62   163263.59      689.01
   574552.97   163261.66      689.01
   574552.12   163259.82      689.01
   574551.38   163257.76      689.01
   574550.76   163255.82      689.01
   574550.31   163253.75      689.01
   574550.03   163251.11      689.01
   574549.91   163249.00      689.01
   574549.79   163246.94      689.01
   574549.54   163244.94      689.01
   574549.15   163242.98      689.01
   574548.62   163241.05      689.01
   574547.96   163238.53      689.01
   574547.37   163236.52      689.01
   574546.84   163234.34      689.00
   574546.36   163232.34      689.00
   574545.96   163230.37      689.00
   574545.93   163227.81      689.00
   574546.51   163225.35      689.00
   574547.49   163222.88      689.00
   574548.53   163221.14      689.00
   574549.73   163219.50      689.00
   574551.34   163217.63      689.00
   574553.14   163215.92      689.00
   574554.67   163213.97      689.00
   574556.20   163211.97      689.00
   574557.86   163210.07      689.00
   574559.48   163208.55      689.00
   574559.77   163208.40      689.00
   574561.60   163269.03      691.00
   574560.34   163266.88      691.00
   574558.98   163264.69      691.00
   574557.92   163262.97      691.00
   574556.69   163260.68      691.00
   574555.84   163258.84      691.00
   574554.93   163256.98      691.00
   574554.01   163254.47      691.00
   574553.72   163252.05      691.00
   574553.85   163249.69      690.99
   574554.38   163247.66      690.99
   574554.32   163247.15      690.99
   574553.85   163244.97      690.99
   574552.77   163242.64      690.99
   574552.13   163240.67      690.99
   574551.52   163238.73      690.99
   574550.95   163236.66      690.99
   574550.54   163234.61      690.99
   574550.25   163232.59      690.99
   574549.97   163229.92      690.99
   574550.23   163227.42      690.99
   574550.86   163225.00      690.99
   574552.07   163222.94      690.99
   574553.77   163221.20      690.99
   574555.56   163219.70      690.99
   574557.45   163218.08      690.99
   574559.06   163216.30      690.99
   574560.66   163214.61      690.99
   574562.58   163213.18      690.99
   574563.83   163212.29      690.99
   574561.05   163263.18      692.01
   574559.61   163261.05      692.01
   574558.22   163258.92      692.01
   574557.24   163257.01      692.00
   574556.34   163255.17      692.00
   574555.70   163253.23      692.00
   574555.48   163250.82      692.00
   574555.90   163248.59      692.00
   574556.15   163246.40      692.00
   574555.85   163245.04      692.00
   574554.65   163243.23      692.00
   574553.70   163241.02      692.00
   574552.91   163238.50      692.00
   574552.42   163235.96      692.00
   574552.22   163233.43      692.00
   574552.21   163231.08      692.00
   574552.35   163228.62      692.00
   574552.96   163226.29      692.00
   574553.98   163223.99      692.00
   574555.39   163222.02      692.00
   574557.25   163220.70      692.00
   574559.14   163219.36      692.00
   574561.08   163217.54      692.00
   574562.83   163215.88      691.99
   574564.33   163214.46      691.99
   574560.40   163259.95      693.00
   574559.42   163257.81      693.00
   574558.46   163255.57      693.00
   574557.54   163253.18      693.00
   574557.31   163250.78      693.00
   574557.26   163248.38      693.00
   574557.23   163246.13      693.00
   574556.81   163243.55      693.00
   574555.81   163241.71      693.00
   574554.83   163239.40      693.00
   574554.22   163236.91      693.00
   574553.85   163234.45      693.00
   574553.78   163231.94      692.99
   574554.14   163229.61      692.99
   574554.78   163227.40      692.99
   574555.74   163225.29      692.99
   574557.09   163223.40      692.99
   574559.10   163221.91      692.99
   574560.74   163220.42      692.99
   574562.41   163218.94      692.99
   574564.36   163217.40      692.99
   574564.35   163217.39      692.99
   574561.04   163254.30      694.00
   574559.85   163252.43      694.00
   574558.93   163250.13      694.00
   574558.72   163247.80      693.99
   574558.45   163245.48      693.99
   574558.13   163243.33      693.99
   574557.37   163241.17      693.99
   574556.82   163238.96      693.99
   574556.39   163236.69      693.99
   574555.81   163234.37      693.99
   574555.65   163232.04      693.99
   574556.13   163229.67      693.99
   574557.16   163227.38      693.99
   574558.50   163225.19      693.99
   574560.08   163223.25      693.99
   574561.56   163221.89      693.99
   574563.53   163220.37      693.99
   574565.59   163218.92      693.99
   574566.06   163218.49      693.99
   574560.82   163248.92      695.00
   574560.32   163247.68      695.00
   574559.86   163245.39      695.00
   574559.64   163243.18      695.00
   574559.16   163241.08      695.00
   574558.32   163238.98      695.00
   574557.73   163236.64      695.00
   574557.44   163234.45      695.00
   574557.57   163232.30      695.00
   574558.08   163230.21      695.00
   574558.99   163228.22      695.00
   574560.29   163226.32      695.00
   574561.81   163224.51      695.00
   574563.35   163222.80      695.00
   574565.35   163221.45      695.00
   574566.89   163220.72      695.00
   574561.54   163245.09      696.00
   574561.08   163242.75      696.00
   574560.45   163240.37      696.00
   574559.89   163237.97      696.00
   574559.55   163235.89      696.00
   574559.59   163233.81      696.00
   574559.93   163231.79      696.00
   574560.71   163229.87      696.00
   574561.76   163228.04      696.00
   574563.06   163226.15      696.00
   574564.43   163224.57      696.00
   574566.14   163223.18      696.00
   574567.28   163222.56      696.00
   574567.69   163222.42      696.00
   574562.25   163239.44      697.00
   574562.23   163237.27      697.00
   574562.25   163234.91      697.00
   574562.44   163232.64      697.00
   574563.05   163230.27      696.99
   574564.07   163228.37      696.99
   574565.42   163226.51      696.99
   574566.97   163225.03      696.99
   574568.75   163223.85      696.99
   574569.99   163223.05      696.99
   574564.40   163238.00      698.01
   574564.66   163235.37      698.01
   574565.06   163232.95      698.01
   574565.74   163230.96      698.00
   574566.86   163228.79      698.00
   574567.37   163227.78      698.00
   574567.94   163226.58      698.00
   574568.41   163226.09      698.00
   574569.03   163225.65      698.00
   574570.90   163224.34      698.00
   574571.73   163223.66      698.00
   574566.45   163240.70      699.00
   574566.70   163238.16      699.00
   574567.29   163235.80      699.00
   574568.39   163233.57      699.00
   574568.70   163233.02      699.00
   574568.54   163232.55      699.00
   574568.30   163231.49      699.00
   574568.39   163230.97      699.00
   574568.65   163230.44      699.00
   574569.06   163229.95      699.00
   574570.83   163228.41      699.00
   574572.21   163226.50      699.00
   574573.69   163224.89      699.00
   574574.23   163224.41      699.00
   574607.04   163261.58      707.00
   574606.36   163260.60      707.00
   574604.81   163258.79      707.00
   574604.86   163258.16      707.00
   574605.02   163256.92      707.00
   574604.90   163256.28      707.00
   574604.64   163255.84      707.00
   574604.21   163255.35      707.00
   574603.68   163255.04      707.00
   574603.13   163254.85      707.00
   574602.59   163254.82      707.00
   574602.06   163254.55      707.00
   574601.80   163254.02      707.00
   574601.94   163253.43      707.00
   574602.24   163252.86      707.00
   574602.29   163252.29      707.00
   574602.10   163251.82      707.00
   574601.80   163251.35      707.00
   574601.17   163249.57      707.00
   574601.17   163247.14      707.00
   574601.31   163246.52      707.00
   574601.64   163245.95      707.00
   574603.11   163244.41      706.99
   574604.98   163242.91      706.99
   574605.33   163242.39      706.99
   574605.44   163241.83      706.99
   574605.37   163241.26      706.99
   574604.73   163239.09      706.99
   574604.72   163238.55      706.99
   574604.85   163237.98      706.99
   574605.22   163237.45      706.99
   574605.77   163236.98      706.99
   574607.60   163235.79      706.99
   574564.93   163275.21      689.98
   574563.19   163273.50      689.98
   574561.79   163272.43      689.98
   574560.31   163270.73      689.98
   574558.92   163269.16      689.98
   574557.75   163267.15      689.98
   574556.72   163265.28      689.98
   574555.49   163263.44      689.98
   574555.18   163262.98      690.01
   574554.96   163262.43      690.01
   574554.00   163260.24      690.01
   574553.29   163258.02      690.01
   574552.81   163255.78      690.01
   574552.15   163253.41      690.01
   574551.84   163251.19      690.01
   574552.35   163248.54      690.01
   574552.35   163246.29      690.01
   574551.83   163244.15      690.01
   574551.00   163241.86      690.01
   574550.13   163239.44      690.01
   574549.52   163237.03      690.01
   574549.05   163234.55      690.01
   574548.65   163232.18      690.00
   574548.57   163229.84      690.00
   574548.51   163227.42      690.00
   574548.76   163225.19      690.00
   574549.60   163223.02      690.00
   574550.99   163221.15      690.00
   574552.48   163219.34      690.00
   574554.22   163217.85      690.00
   574555.67   163216.33      690.00
   574557.33   163214.73      690.00
   574559.10   163213.32      690.00
   574560.66   163211.78      690.00
   574562.25   163210.30      690.00
   574563.85   163209.07      690.00
   573990.78   162934.57      672.25
   573990.30   162932.20      672.25
   573989.69   162929.74      672.25
   573989.16   162927.73      672.25
   573988.38   162925.45      672.26
   573988.34   162924.16      672.26
   573988.56   162921.84      672.26
   573988.94   162919.63      672.26
   573988.98   162919.46      672.26
   573990.78   162934.57      672.25
   573990.79   162934.77      672.25
   573990.74   162937.32      672.25
   573990.52   162939.59      672.25
   573990.04   162941.92      672.25
   573989.65   162944.36      672.25
   573989.26   162946.81      672.25
   573988.79   162948.95      672.25
   573988.59   162949.48      672.25
   573987.46   162951.57      672.25
   573985.90   162953.39      672.25
   573983.93   162954.38      672.25
   573983.28   162954.32      672.25
   573982.24   162954.06      672.25
   573980.58   162952.75      672.25
   573979.29   162950.96      672.25
   573979.06   162950.51      672.25
   573978.92   162950.02      672.25
   573978.75   162948.85      672.25
   573979.08   162946.23      672.25
   573979.64   162943.92      672.25
   573979.95   162941.54      672.25
   573980.02   162938.97      672.25
   573979.74   162936.41      672.25
   573979.22   162933.89      672.25
   573978.53   162931.45      672.25
   573977.31   162929.57      672.25
   573975.80   162927.87      672.25
   573974.24   162926.31      672.25
   573972.51   162924.89      672.25
   573970.82   162923.54      672.25
   573968.82   162922.35      672.25
   573966.41   162921.52      672.25
   573964.25   162921.06      672.25
   573961.74   162920.57      672.25
   573959.45   162920.04      672.25
   573957.29   162919.33      672.25
   573955.16   162918.48      672.25
   573952.88   162917.85      672.25
   573950.66   162917.28      672.25
   573948.36   162916.93      672.25
   573945.95   162916.89      672.25
   573943.70   162916.97      672.25
   573941.37   162917.17      672.25
   573939.29   162917.71      672.25
   573937.12   162918.38      672.24
   573934.77   162918.89      672.24
   573932.45   162919.31      672.24
   573930.15   162919.70      672.24
   573927.77   162920.06      672.24
   573927.25   162920.25      672.24
   573924.80   162920.61      672.24
   573922.48   162920.84      672.24
   573919.95   162921.05      672.24
   573917.48   162921.28      672.24
   573915.23   162921.64      672.24
   573912.92   162922.26      672.24
   573910.75   162922.86      672.24
   573908.36   162923.39      672.24
   573905.96   162923.91      672.24
   573903.52   162924.32      672.24
   573901.03   162924.87      672.24
   573898.78   162925.44      672.24
   573896.38   162925.83      672.24
   573894.15   162926.22      672.24
   573891.91   162926.48      672.24
   573889.47   162926.91      672.24
   573887.39   162927.28      672.24
   573885.13   162927.72      672.24
   573882.80   162928.08      672.24
   573880.38   162928.43      672.24
   573878.09   162928.68      672.24
   573875.64   162929.05      672.24
   573872.98   162929.37      672.24
   573870.58   162929.93      672.24
   573868.29   162930.63      672.24
   573866.12   162931.57      672.24
   573864.26   162932.45      672.24
   573862.53   162933.49      672.24
   573860.59   162934.57      672.24
   573858.69   162935.82      672.24
   573856.70   162937.18      672.24
   573854.76   162938.57      672.24
   573853.03   162939.94      672.24
   573851.44   162941.21      672.24
   573849.63   162942.87      672.24
   573847.61   162944.02      672.24
   573845.54   162945.17      672.24
   573843.18   162946.44      672.24
   573841.29   162947.90      672.24
   573839.53   162949.59      672.24
   573838.20   162951.56      672.24
   573837.05   162953.63      672.24
   573835.85   162955.88      672.24
   573834.89   162957.76      672.24
   573833.94   162959.75      672.24
   573833.13   162961.96      672.24
   573832.85   162962.43      672.24
   573831.81   162964.71      672.24
   573831.03   162966.96      672.24
   573830.33   162969.42      672.24
   573829.51   162971.95      672.24
   573828.90   162974.17      672.24
   573828.30   162976.41      672.24
   573827.75   162978.58      672.24
   573827.13   162980.76      672.24
   573826.55   162982.81      672.24
   573826.00   162984.98      672.24
   573825.56   162986.96      672.24
   573825.10   162989.18      672.24
   573824.68   162991.27      672.24
   573824.29   162993.44      672.24
   573823.63   162995.43      672.24
   573822.89   162997.59      672.24
   573822.02   162999.66      672.24
   573821.25   163001.70      672.24
   573820.62   163003.90      672.24
   573819.84   163006.19      672.24
   573819.26   163008.67      672.24
   573818.71   163010.90      672.24
   573818.20   163013.27      672.24
   573817.67   163015.58      672.24
   573816.94   163017.86      672.24
   573816.16   163020.10      672.24
   573815.23   163022.15      672.24
   573814.33   163024.40      672.24
   573813.49   163026.58      672.24
   573812.60   163028.91      672.24
   573811.55   163031.05      672.24
   573810.46   163033.17      672.24
   573809.34   163035.31      672.24
   573808.32   163037.63      672.24
   573807.35   163039.74      672.24
   573806.37   163041.80      672.24
   573805.46   163044.01      672.24
   573804.56   163046.02      672.24
   573803.51   163048.19      672.24
   573802.45   163050.14      672.24
   573801.41   163052.30      672.24
   573800.44   163054.31      672.24
   573799.42   163056.41      672.24
   573798.33   163058.30      672.24
   573797.25   163060.29      672.24
   573796.13   163062.03      672.24
   573795.11   163063.80      672.24
   573793.48   163065.84      672.24
   573791.90   163067.86      672.24
   573790.28   163069.40      672.24
   573788.25   163070.84      672.24
   573786.42   163071.99      672.24
   573784.30   163072.93      672.24
   573782.02   163073.97      672.24
   573780.16   163074.95      672.24
   573778.25   163076.11      672.24
   573776.10   163077.40      672.24
   573774.21   163079.00      672.24
   573772.50   163080.06      672.24
   573770.84   163081.30      672.24
   573769.19   163082.69      672.24
   573767.37   163084.00      672.24
   573765.76   163085.45      672.24
   573763.95   163086.92      672.24
   573762.10   163088.51      672.24
   573760.58   163089.90      672.24
   573758.99   163091.24      672.24
   573757.47   163092.65      672.24
   573755.85   163094.26      672.24
   573754.22   163095.88      672.24
   573752.66   163097.64      672.24
   573751.03   163099.32      672.24
   573749.44   163101.24      672.24
   573747.80   163102.95      672.24
   573746.13   163104.76      672.24
   573744.56   163106.45      672.24
   573742.85   163108.07      672.24
   573741.40   163109.48      672.24
   573741.15   163109.82      672.24
   573743.40   163089.01      675.00
   573744.61   163087.17      675.00
   573746.07   163085.33      675.00
   573747.65   163083.38      675.00
   573748.94   163081.62      675.00
   573750.05   163080.23      675.00
   573750.60   163079.67      675.01
   573749.99   163080.35      675.00
   573740.21   163003.14      685.49
   573739.95   163000.95      685.49
   573739.80   162998.96      685.49
   573739.68   162996.84      685.50
   573739.61   162994.78      685.50
   573739.42   162992.78      685.50
   573739.29   162990.41      685.50
   573738.82   162988.27      685.50
   573738.63   162985.76      685.50
   573739.07   162983.34      685.50
   573739.91   162981.34      685.50
   573740.86   162979.31      685.50
   573741.55   162977.06      685.50
   573742.10   162974.73      685.50
   573742.89   162972.15      685.51
   573743.46   162970.20      685.51
   573743.75   162968.55      685.51
   573737.40   163006.08      686.51
   573738.01   163007.14      686.50
   573738.11   163007.64      686.50
   573738.16   163008.79      686.50
   573738.06   163011.06      686.50
   573738.35   163013.48      686.50
   573738.44   163014.63      686.50
   573573.88   163009.51      701.00
   573574.54   163010.43      701.00
   573575.63   163011.87      701.00
   573577.18   163013.61      701.00
   573578.94   163015.55      701.00
   573580.18   163017.18      701.00
   573581.32   163019.09      701.00
   573581.90   163019.98      701.00
   573582.15   163020.48      701.00
   573582.40   163020.82      701.00
   573585.33   163016.81      698.00
   573585.33   163016.80      698.00
   573580.12   163006.33      696.00
   573579.74   163005.66      696.00
   573578.33   163003.77      696.00
   573576.50   163002.02      696.00
   573574.95   163000.42      696.00
   573573.44   162998.82      696.00
   573571.72   162997.36      696.00
   573569.80   162996.29      696.00
   573567.99   162994.91      696.00
   573566.09   162993.58      696.00
   573564.23   162992.84      696.00
   573562.20   162991.70      696.00
   573560.42   162990.32      696.00
   573558.45   162988.93      696.00
   573556.87   162987.55      696.00
   573555.27   162985.87      696.00
   573553.28   162984.21      696.00
   573552.89   162983.59      696.00
   573551.57   162981.19      696.00
   573550.30   162979.20      696.00
   573549.16   162977.03      696.00
   573548.29   162974.94      696.00
   573547.26   162972.76      696.00
   573546.60   162970.82      696.00
   573546.08   162968.38      696.00
   573545.67   162966.00      696.00
   573545.43   162963.90      696.00
   573544.78   162961.32      696.00
   573544.06   162958.81      696.00
   573543.93   162956.37      696.00
   573543.69   162954.07      696.00
   573543.82   162951.54      696.00
   573543.99   162948.99      696.00
   573544.18   162946.41      696.00
   573544.61   162943.75      696.00
   573545.05   162941.19      696.00
   573545.51   162939.13      696.00
   573546.13   162937.22      696.00
   573546.96   162934.78      696.00
   573547.73   162932.92      696.00
   573548.91   162930.65      696.00
   573550.44   162928.48      696.00
   573551.96   162926.39      696.00
   573553.61   162924.31      696.00
   573554.80   162922.71      696.00
   573555.99   162921.04      696.00
   573557.42   162918.93      696.00
   573558.50   162916.69      696.00
   573560.17   162914.68      696.00
   573561.52   162913.17      696.00
   573563.36   162911.21      696.00
   573564.86   162909.66      696.00
   573566.30   162908.26      696.00
   573567.66   162906.76      696.00
   573569.05   162905.20      696.00
   573570.56   162903.15      696.00
   573572.17   162901.24      696.00
   573573.45   162899.70      696.00
   573574.75   162897.96      696.00
   573575.78   162896.14      696.00
   573577.13   162894.29      696.00
   573578.56   162892.53      696.00
   573579.81   162890.73      696.00
   573580.96   162888.81      696.00
   573582.10   162886.83      696.00
   573583.33   162884.91      696.00
   573584.57   162882.96      696.00
   573585.95   162880.94      696.00
   573587.33   162878.94      696.00
   573588.70   162876.90      696.00
   573590.25   162874.91      696.00
   573591.76   162873.28      696.00
   573593.22   162871.70      696.00
   573594.85   162870.21      696.00
   573596.07   162868.63      696.00
   573597.12   162866.38      696.00
   573598.07   162864.01      696.00
   573599.04   162861.65      696.00
   573599.77   162859.12      696.00
   573600.83   162856.74      696.00
   573601.94   162854.96      696.00
   573603.26   162853.31      696.00
   573604.55   162851.61      696.00
   573605.76   162849.97      696.00
   573606.90   162847.84      696.00
   573607.90   162845.67      696.00
   573608.78   162844.39      696.00
   573610.12   162842.35      696.00
   573611.49   162840.00      696.00
   573612.64   162838.14      696.00
   573613.95   162836.28      696.00
   573615.35   162834.36      696.00
   573616.78   162832.42      696.00
   573618.25   162830.48      696.00
   573619.42   162828.54      696.00
   573620.52   162826.61      696.00
   573621.43   162824.69      696.00
   573622.36   162822.77      696.00
   573623.18   162820.87      696.00
   573624.05   162818.94      696.00
   573625.22   162817.02      696.00
   573626.38   162815.23      696.00
   573627.44   162813.45      696.00
   573628.59   162811.78      696.00
   573630.29   162809.72      696.00
   573632.21   162808.08      696.00
   573634.17   162807.11      696.00
   573636.14   162806.17      696.00
   573638.50   162805.09      696.00
